ply
format ascii 1.0
element vertex 804
property float x
property float y
property float z
end_header
0.1363384481708988 0.06888892747477776 0.7092803161783129
0.18753050074915598 -0.004888082064968534 0.7142455526708268
0.3720850610974398 -0.328762958079483 0.7522878011456628
0.4869003196376034 0.12117076646699833 1.0056195494773361
-0.2150056795073432 -0.12944161808270127 0.5007319381250435
0.1422903589077285 -0.20035754733893765 0.6006373711782256
0.3885701966590471 0.00014688001982071265 0.8917635454593758
0.399216551775303 0.02078784010745396 0.9067034093702071
-0.27573714497240603 -0.08810259428683226 0.4964673654700346
-0.2257355846936528 -0.10962132696902369 0.5031974008816542
-0.02174513658447599 -0.06137457882640125 0.559359321585807
0.4435678172649451 -0.3304251784314165 0.8046515753798787
0.23686051666571903 0.0734314397434094 0.7769651236460845
0.07372769701168685 -0.094944916036554 0.6031184026571793
0.23960568643858435 0.21776284635465998 0.8306935761262829
-0.23983889062170324 0.15661687121752874 0.5174097975594563
0.2171138783446979 -0.006236541956966084 0.7335396563258118
0.4994192884687093 0.16303602497411776 1.0301969870689467
0.5820809144629514 0.021226016788207517 1.037433271632423
0.26968357881111593 0.17400666808149667 0.8355491208394751
0.1346633633932139 -0.15315811418086142 0.617085153564883
0.06338506139155516 0.01159650054525288 0.6393832314953012
0.27781188592801837 -0.09978041407008151 0.7759715996701865
-0.13621950546931688 -0.05631110396735468 0.5219326534604924
0.18021093691035245 -0.05422721163955375 0.6899035026599694
0.41099793375824145 0.17553269025342902 0.970664856110262
-0.26220792688657624 -0.09506126340604372 0.5010288206008282
-0.21886192008236993 -0.09351605037949863 0.5033004808235911
0.0582350409165141 0.1043539955081484 0.6674634077603383
0.006969168856205498 -0.21455507991332315 0.493048740143935
-0.03408668875539892 0.003743147633021624 0.5811054288994663
0.044990371347788924 -0.22488278211001334 0.5152992649723521
0.19239086040967587 -0.07901427166576634 0.6882071030404898
-0.18192636000522008 -0.06958382958324748 0.509200662584671
0.20946489389683115 0.13150195933595876 0.779823421884876
0.1979185523561076 -0.07675864710597166 0.6927724685282112
-0.14599472766231772 -0.13895667080623963 0.48915701529872374
0.36853390294107513 -0.13495835573982087 0.827708211519316
0.24460500967872098 -0.287919530176737 0.6754023486325625
0.1484285014524668 -0.07623862535504475 0.6596037153456561
0.44335256495748554 0.04928126108521185 0.9485914857856771
0.1787882517998753 -0.004565806074482253 0.7085041546240486
-0.0965382359729409 0.05625016875441145 0.5694068969249738
0.4230361589125199 -0.09529326538442834 0.880282192078115
0.20295554243472647 -0.11160781249417052 0.6818610600148342
0.07443373153732337 -0.2374303617371031 0.5311271764999272
0.3945202351242713 0.08518323256109141 0.9271553772752745
-0.22619115605540557 -0.10716708755668426 0.5030735755645587
-0.17769032111876645 0.2015733150498546 0.561858643151128
0.2916103071257525 -0.21019749724479755 0.7414750799865175
0.46545152095087056 0.04348835257082697 0.9622475982488669
0.23427571043680026 0.22090421723614778 0.8271490621847634
-0.21199301718690508 -0.13012303180517681 0.5004350777615282
0.1903036224198499 -0.0071903115321678614 0.7152669779847998
0.23538767839064142 0.23592503710917512 0.8333706062854994
-0.28262632367876994 0.09280170867844328 0.4800595674603476
-0.27129399254295306 0.12509257635587148 0.49199339446230494
0.1765232505559291 -0.07193760241671635 0.680354121274051
-0.24581768753899225 0.051609098652055686 0.4991124891382335
-0.25358309014480424 -0.006871654669430563 0.4929529316936572
-0.26578051535752345 0.03973920916235904 0.4871778277547106
-0.18297103242177046 0.052511258569267666 0.5296688215208212
-0.08065748086791943 0.02589473007761479 0.5663399959010887
0.3677041189994388 -0.20152401378566195 0.7996386850435883
0.11954706157542522 -0.14827465931798411 0.6088896120887782
0.04098512107347734 -0.14086289772310315 0.5608627865355359
-0.03295884901102633 -0.20462393772145301 0.4714403322896612
0.5925397333112886 0.13395074674081853 1.0858798223664539
0.028514559918912722 -0.19874418698722476 0.519668664191494
0.06722642407544278 -0.13978020336944666 0.5780374231827863
-0.23304266824624595 -0.1023473305851904 0.5031016886029527
0.07096669395810778 -0.19355628764774202 0.5526339402541944
-0.02635553062011222 0.10807214082656336 0.6198272904699136
0.22846918788050846 0.18742895973728224 0.8122824960245197
0.5624984680070131 -0.0004723107470000727 1.0155156992086454
-0.04751520561754978 -0.1660647864260717 0.49512963443692426
0.10677140256601557 0.0532448057766169 0.681373122371245
0.4440205603080774 -0.04856113910003538 0.9136659614187764
0.07868001551099056 0.007940409272448004 0.6459459957764883
0.32521079455802576 -0.20793087304962699 0.7665139978298994
0.10745774153973334 -0.22544615906300158 0.5627132107746514
0.5096074404750611 -0.13843476160180213 0.9263564789138918
-0.04291811651532272 0.02010220002814646 0.5826951489003117
0.3278542067913762 0.12296851642078745 0.8940663900609191
0.13192803959901683 -0.1310999218721929 0.6248333611231125
-0.0945593359289999 -0.07899845081144267 0.5230238939068531
-0.18738277147635907 -0.12128316089075451 0.4987719835884199
0.5261247789912878 -0.115210450395113 0.9469761688920243
-0.23388661545836603 -0.05161798756755326 0.5009580398033912
0.0233627716833093 -0.10416473505003333 0.5645087632350956
-0.2877859309806965 -0.05100243015317088 0.48174698909698793
-0.12818869284382486 -0.11770775605123979 0.5009783806927436
0.3047272326526347 -0.1507397228852434 0.7749230619878539
-0.2833487913252717 -0.09967818273703302 0.4982991102608278
0.45043032353406665 -0.3330535868037235 0.808541037561805
0.08372701295695212 0.11014567120669114 0.6852775601783019
0.0856925640732615 -0.14199648831830122 0.588984428179342
-0.2476501891608436 0.1260951367981007 0.5073339571598325
0.2758222553782007 -0.19959490964189058 0.7351144223214959
0.05473025626580845 -0.07419097160398037 0.5961994559331348
0.019177310157075234 -0.17002630960228343 0.5309357896695726
0.17667782955365371 -0.24159856970288693 0.607136189773609
0.08532725692090376 -0.22979311886860163 0.5436838825906806
0.14868974140325952 -0.09819326258633795 0.6505278931207189
0.2993314814594412 -0.27117543408620964 0.7219632297680479
0.0782594003207265 -0.10429397242242533 0.6018198465952679
0.3421430769134992 -0.3085529670132451 0.7381579577189253
-0.18584422113005336 -0.09428201142401085 0.5043765814487787
0.49658855952072106 0.07535382850777764 0.9959838625838039
0.6313403163017953 0.020994067916733708 1.0731270225856546
0.0829327631763769 0.11486275367018838 0.6864720723826246
0.1561272575236429 -0.15903079727999286 0.6290878848450869
0.08999202443636324 -0.15122901014390572 0.5876116343563936
-0.28564503945898895 0.11876577261366676 0.48132940738415986
0.1835348717688906 -0.20836978730427494 0.6269512750382775
-0.08822432890284007 -0.08829378918972346 0.5202436843364572
-0.057813290159084714 -0.1479184568796308 0.49626897095799055
-0.21955147798901675 -0.11918640676227563 0.5022586547390024
0.3184683543268019 -0.11781282940339294 0.7974354921479032
0.3065271543521841 -0.2442319670320327 0.7384057646649588
0.48923682522564155 -0.15076375496021693 0.9069088542348206
0.11287249007586095 -0.18573304111083408 0.5865047048130154
0.32841368617690875 -0.1859397221199147 0.7777668994270743
0.24268792291868532 -0.2543745158311991 0.6876756347827986
0.19295200111788172 0.07168745497220803 0.7469100080283949
0.012854374367050746 0.0657597385299492 0.6299664835212029
0.17205501768222112 0.031471580189948334 0.717821381313242
-0.14057497662287913 -0.013192403987048419 0.530265823859314
0.23921951768764532 0.06914374641287174 0.7769109667999007
-0.13819765919310273 0.04014675720060371 0.5457536304506883
0.05410311295897496 -0.2270424326395699 0.5212241203772818
0.23967239539840263 0.07149918182077283 0.7782482196926515
0.30436186882206856 -0.012106447573482853 0.8286182743852046
0.3852771531656271 -0.349349369592818 0.7540216575211931
0.5599458293367743 -0.07452185503067708 0.9864477880431832
0.43416088801012576 -0.25110701967514354 0.8287512151667863
-0.06224189456166521 -0.07819847224165945 0.5330824142481935
0.42825090152552125 0.007125175252853968 0.9222543982906188
0.06535086184608314 -0.12343367769231937 0.5846894238458187
0.10524155771010207 -0.18609748252017252 0.5810319758186421
0.12633851564850215 -0.09786303631345977 0.6359695043235961
0.1369283531779333 0.03841195666081863 0.6980590124140705
-0.17134103762387867 0.11770346447460829 0.5454926659945267
0.19566910592908346 0.04474634932381366 0.7383118638787641
-0.1277364260105664 -0.03441872396938085 0.5285773134425081
0.39324873294866936 0.10128127106058321 0.9321905078862706
-0.007500014284270152 -0.2012975074196776 0.4924200976763451
-0.21163743205743596 -0.1269227195837319 0.5005956328638168
0.36856767790962525 -0.04459249447537524 0.8608495231165294
0.12387818364083242 -0.12712397416328688 0.6211896373846826
0.21166269028882628 0.23537087133369197 0.817375939542816
-0.18945052889255315 0.024937907837351277 0.5221550961394551
-0.15964631368282936 -0.0607876212936977 0.5151375453091033
-0.2550453808366969 -0.08947198177423032 0.5005950800872365
-0.06874548800017732 0.025776107296115108 0.5718046669067299
0.22510595417153734 0.06494472425581813 0.7659076102976388
0.278283635180313 -0.11425356512456027 0.770666821609195
-0.04054640409403194 -0.045909799211725964 0.5572998568222142
-0.013523005409112538 -0.206982167666725 0.48387172207209583
0.053117949363330315 0.12514842631846768 0.6720001380111674
-0.28016292314544256 0.044733175022046164 0.47850011509572593
-0.1440900803699019 0.09372970583752738 0.5539596652981182
-0.21545803312774414 0.17802896857977804 0.5363884598167977
0.5302943004005359 0.055816956859055196 1.0129778504078337
0.18586213294307558 0.1185576390631672 0.7596879912682579
-0.23642337382026082 0.1497797742321168 0.5180305680421481
0.5087077104282706 -0.12600826105959945 0.9304128195159164
0.11870168687664984 -0.12112672936817502 0.6206345695772424
0.18170679108156979 -0.14445353034251568 0.6534509642390118
0.5424168266416703 0.17790719931398172 1.0658953216759657
0.18974345370274082 -0.2100247974268442 0.6307370306428484
-0.1862450004165735 -0.10527383966503458 0.5020473389621924
0.09830135680773786 -0.20940754900447645 0.564047833088037
-0.2839648923765458 0.0668875021054474 0.4772747712033938
-0.03710761873177175 -0.17104407070246838 0.49552689324333954
0.13113641866781567 0.00015050715399668474 0.6794219899409301
0.4218242571140505 -0.2918955551711948 0.8037105250877353
0.1446105148202506 -0.23146218760602616 0.5876987548593916
0.31973568133249713 -0.050650003825116884 0.824069958438898
-0.10577951546293773 -0.0650033385842345 0.525072329877143
-0.1838715818115393 0.11332660310536057 0.5384591606303529
-0.17728078889655682 -0.11751617425544444 0.4993480553946164
0.2569924306076039 -0.2720445657056574 0.690694740677219
-0.007714376165720242 -0.17076456650555555 0.5138529095450075
0.26199572381530195 -0.1311970952514297 0.7531418602032023
-0.1558110233530484 0.003414073769100319 0.528463230347357
-0.24507820083773754 -0.004341809123945743 0.49678929434992725
-0.16483853426827577 0.1941388705260823 0.5674215097605183
-0.2947081104895329 -0.13058893251279347 0.5096361863744044
0.1143020263352662 -0.22060154619907407 0.5703726510368914
-0.21266177594537378 0.08710219778876409 0.5211682620357873
-0.14611793534731374 0.09214039155246412 0.5528434072033849
0.16375683809336672 -0.07989521636143265 0.6684438789692051
0.2399085287551867 0.16793922068552758 0.813207436987583
-0.08206073148992055 -0.02628713000840656 0.5466369497374965
-0.2301171396134983 0.12834870100972248 0.5185032339383931
0.37867734107198686 -0.24694697058987375 0.7895266346898517
0.13516999370788724 0.06995045114594756 0.7088820869680087
0.14411603982036453 -0.22560247038999012 0.5899958216572838
0.316616808467288 0.11548729886362838 0.8836714450435782
0.28463158582501635 -0.243761022427305 0.7227222404890972
0.33177670704710427 -0.3158250629562842 0.7272467531774314
-0.14791960055935574 0.10020294698578269 0.5538117023484435
0.371378238484281 -0.16611718298927938 0.8164053488632016
-0.11312788087705374 -0.0028657418976222137 0.5442110400887019
0.11381246270891016 -0.09158632741021505 0.6305501262074596
0.08342195951115036 -0.2042024804427842 0.5561117091804925
0.19450240451529668 -0.09170469496988194 0.6843589183631984
0.5314628898454765 0.21002017821675406 1.0682798230149284
-0.2865535922038912 -0.05475109532908381 0.48321768463046083
0.11237575005685589 -0.1262584486687883 0.6140289746242678
-0.07173689563430463 0.041536908354177636 0.575535419867969
0.07065240755969421 0.06877295329935487 0.6653722387767169
0.09806149519326456 -0.11926015922900564 0.6079997515005017
0.11772069655761119 -0.20807110143543978 0.5790281932501256
0.15925483574797678 0.03029518556879142 0.7091970268324566
-0.25006344240315226 0.008994786294922017 0.49454339838207567
-0.2494173346068602 -0.06460847642983603 0.49831924485824763
0.07758502123948025 -0.14694759336049623 0.5811439983078299
0.2533986824421148 0.18344535175227836 0.8280208996319699
0.1521212554090195 -0.07807902086281841 0.6613901575116437
-0.27311092388679936 0.10865711452825985 0.48846356838075955
0.19705585431120115 0.046520184153035084 0.740168952196555
-0.07551041176367998 -0.12628579212416494 0.5016586090303495
0.40524619992259747 0.03082231140319499 0.9147772776482473
0.38286148513774515 -0.32806750294471226 0.7605586854870194
0.018962043025876143 -0.006270811764706334 0.6049685615107119
0.3776180609797775 -0.04943259850170531 0.8653223871588014
0.34627110721305343 -0.3324056888236018 0.7314451486593465
-0.024735296440434474 0.05235876063775267 0.6015790431550184
0.09017740559838097 -0.16855317461829186 0.5789193803068422
0.17046475582587356 -0.1548880418690688 0.641084530313092
0.5781062486874329 -0.1502218683828906 0.9713808271788178
0.13474868127363732 -0.1222143876572188 0.6309098872477197
0.5045194231866027 -0.3054911505905292 0.859298328355037
0.390589314956816 -0.21625120924133373 0.810111795743931
-0.22277133583163858 -0.0664604763190911 0.5032818669418554
0.1832656325403349 0.18891230899526879 0.7831079321244222
-0.27489905437918133 0.1469211600627583 0.4927161887202279
-0.014023943585594906 -0.20965811658439068 0.48127582715595874
-0.09063449022832976 -0.13179385469303753 0.4980163128833874
0.5558161180141254 0.017099786621064227 1.017484890035555
0.2797471250369429 -0.21135131362810522 0.7326778716301224
-0.039126940764206614 -0.2034421422004074 0.4677328639975429
-0.2726312144859149 -0.13879104122752572 0.5121491356570381
0.08486515967492093 -0.22373419293199137 0.546622536387877
-0.23811956984562896 0.057622085163419205 0.5035889013934155
-0.19828277228659344 0.0357406634455425 0.5199013382815464
-0.2600477892077158 0.04522742706817665 0.4908150323217926
-0.22584266811980935 -0.006583110951862327 0.5040400958923703
-0.09776153313081135 -0.062350017102281115 0.5292572854406116
0.006321482670683388 -0.17140110617273593 0.522380174524427
0.2964208413790897 0.015339279199954696 0.8334319035776583
-0.24071900658900208 0.11399006880300196 0.5096242088451446
-0.2626549068654246 0.12053788624145685 0.49698328822924215
0.13294563572229448 -0.21178276940160728 0.5886797880018485
-0.12970121073057442 -0.11989533593417483 0.4998045495604088
-0.12904788921466095 -0.12969011951791 0.4956833363906881
0.16354150994287095 -0.21989997711750786 0.6070791553029212
-0.08856535081848492 0.11469235835663934 0.5881231818215441
0.5833214165740801 -0.08907181229872527 0.9979832583602312
0.593061155011408 -0.07907684682959915 1.0087727444908152
-0.2506763177754082 -0.012576100705453976 0.4944749184714452
0.12225529876694888 -0.21379433976238849 0.5796742612463887
0.07491555794148196 -0.21711471299844753 0.5428209859435945
0.6107956572272278 -0.09355280849538643 1.01639518375309
-0.15614461330357174 0.161968374759986 0.5644619333792668
-0.07159129517722324 0.001845476080576598 0.5619171913010642
0.4704347819529421 -0.27970331578357893 0.8442642383039503
-0.07431403885862732 -0.175978166399643 0.4746451033325969
0.059220674340414045 -0.23678255137471846 0.5192908625982752
-0.27864130585210894 -0.12228623894567901 0.5071862267463803
0.24841389759672786 0.10160999093226057 0.7954033905472683
0.5337129072305837 0.09486742046298602 1.029401359063107
0.28384707248510993 -0.08289003796155234 0.7869166309337903
-0.0805453964979845 0.06648971188995 0.5790811204295925
0.01108208762462979 -0.1897927251186058 0.5134770948492781
-0.01830506246487774 -0.14235776948411213 0.5169162481570835
-0.24144934775190208 -0.06740054780789222 0.5002830316880552
0.48909202027184373 -0.16682400502699737 0.9008331821338391
0.38017825915129805 -0.07188775778501826 0.8588771310027717
-0.2549922105789133 -0.03360120295766084 0.493777063330971
-0.02268527821864116 0.04361682334800568 0.5994992968336295
0.23485873839432617 0.1876796557617375 0.8170348076206412
0.2801797101562703 -0.05745681958990807 0.7940423498751084
0.4077411028207189 -0.039999938665708765 0.890179576323074
0.07556335782981145 -0.17939057561391442 0.5630716749420556
0.5427999921604394 0.08908375036413375 1.033556645929133
-0.08745335015499602 0.1071810634435883 0.5863149787812872
-0.24818234613941592 -0.09071233866399186 0.5014547678193271
0.6341431891202909 0.12370986950509379 1.1120420901378094
0.34042407835509897 -0.26578546508493334 0.7543687968495018
-0.2429327046173992 0.09049244416688496 0.5050325522957001
-0.23882038540513725 -0.05137308570585837 0.4998014160284857
0.45421284605000567 -0.23006300156528123 0.8513471693001831
-0.2563088305281446 0.010221573333153941 0.4916474405006105
0.0729595401752737 0.045064704255402585 0.6584678972861618
-0.20161307123517638 0.0964338824827438 0.5286745466282532
-0.20553439155105288 0.049879864647879 0.51888989597219
0.3706841718998091 -0.1763155148544987 0.8115787631648891
-0.11707944905727243 0.02985590622760072 0.5519385009586981
0.07929308259728125 0.11108551943788583 0.682761391028749
0.5677437385853907 0.14388719533220817 1.0715766189589717
0.30809372258230044 -0.13891086369274236 0.7820719495238262
-0.19195693169210534 -0.081644363716669 0.5059120942119163
0.41063968507996657 -0.2896629582667156 0.7963246622514157
0.1512149276851734 -0.026332638354561233 0.6816459883067405
-0.03455553610962478 -0.20581632348949058 0.46928188391326553
-0.11760567897477435 -0.11114012251588005 0.5058027048347878
-0.184588000125134 -0.029250475355940008 0.5150677591429785
-0.15259053406183912 -0.10394767997303281 0.5039151328874424
0.12056371011111074 -0.1888111596540775 0.5905668438310849
0.2817361319835716 -0.11351759546503014 0.7732113525286711
0.33461759906285077 -0.07335599380564203 0.8260895868597993
0.1673038733902509 -0.07133461993854114 0.6744193409035283
-0.2527561377088824 0.12415804306726536 0.5036191828088353
0.08499097855226391 -0.09013598442396832 0.6125531260591158
-0.2722197297788704 -0.025151883227184365 0.4854097230386679
-0.033827802967617934 0.23589629092850237 0.6487176303439004
-0.01353024627247343 -0.19791516544027524 0.49072338660473497
0.5982542780104585 -0.050075449235412565 1.023221423109482
0.02164790535356466 -0.195500539166352 0.5169546170303451
-0.29601785591297364 -0.1252926883206764 0.5065971603703388
-0.27040996635127085 0.11835833161660624 0.4915184566673865
0.4016286736920176 -0.2088220676235437 0.8209034290621124
0.4001636247051597 0.09935973051733113 0.9362748343105437
0.2747207446191418 0.20227499316516778 0.8490647585569799
0.20720769795678748 0.1433555304726677 0.7827377492756872
-0.1703471030545718 0.06474174310379995 0.5358964042704426
0.36101903866365415 -0.13466527654000693 0.8207658345938639
0.0628341499142085 -0.21916236058946395 0.5324797200367063
-0.16472304222984926 -0.09839673898182613 0.5046101519799355
-0.2755936678992634 0.1414405287312992 0.4915181982276384
0.061291305755063676 -0.05890590955478602 0.611599781821785
0.06705349169154634 -0.06068561639573182 0.6144072470757236
0.11152667343839574 -0.23250118569264022 0.5622398168427445
-0.2821522608374655 0.08187544369810498 0.4790341809555964
0.6599505570305289 -0.0007217355575857038 1.0859359882511812
0.18368065301072425 -0.03975807048286901 0.6979791832296912
0.29611179770356405 -0.060547509061101575 0.8039068073535005
0.18759609324967122 0.1830283678073495 0.7839580198393997
-0.25582934678756997 0.03100611895176645 0.4926999981740496
-0.11825437292343524 -0.13055677478551994 0.49588927781827524
0.051099876643274235 0.014977279161113603 0.6336453124949168
0.1448537569327416 -0.13913750429092125 0.6302086567375532
-0.2957076590675667 -0.10005924029138674 0.4943561382207823
0.48552948111186156 -0.23840818976803682 0.8711117235078728
0.5429111955076794 -0.15738436047135348 0.9433978074706892
-0.04689870968457532 -0.1841415128252273 0.4808532266457151
0.102275792202292 0.08782730658175618 0.6906240394124998
-0.0012635519317291248 -0.2034972835758003 0.49528140527076886
0.06675494864104221 -0.09395768681310052 0.5993969732386767
0.08172347868501084 -0.16094100921791904 0.5770150163052397
0.6018698731155128 -0.1454122319388222 0.990689483442302
-0.0375596573148496 -0.10601371157013305 0.5301832412884055
-0.015436864607534278 -0.15230664326636784 0.515081494917597
0.010670666035761915 -0.1697763920041051 0.5258062539869279
0.3049557084190325 0.230923845810178 0.878565501505477
0.09518536984975529 -0.20188829359848698 0.5658140777365076
-0.2357852532978869 0.09157206112266096 0.5092427086981586
0.11380474282860134 -0.23205017285533466 0.5641068579599788
0.17630858401328442 -0.21747617209274464 0.617610394544601
0.3120054953336393 -0.2276140709583714 0.749205985148968
-0.2994940975283247 -0.0780311819879214 0.4831620457135505
0.21078039650349492 0.11596814331463619 0.7750286468182611
0.2646103181738048 -0.2827468090513216 0.6918565785146711
0.3664991351829743 -0.00955837051424617 0.8725051358389722
0.1359912239974855 -0.226199828050967 0.5838839311212304
0.3019216327077201 -0.2535001275774536 0.7309807867339255
-0.183524042237479 -0.13694453818125388 0.4936330106775521
0.08890426530633574 -0.17080204006394276 0.5770642121233178
0.06461879413780718 -0.11092067290902712 0.5903763114695285
0.41195464777790136 -0.3142709822183244 0.7876096279591028
0.2061597260448661 -0.025036270855091743 0.7187379216723689
-0.02889698548813004 0.049789082578335385 0.5983475617021157
0.10360011229138154 -0.23342434712126403 0.5556085138754994
0.1393376627344948 -0.004144602066720247 0.6828561750241108
0.6636504506473675 0.05074933187133912 1.1070899517820536
0.21916429053192996 -0.04663821739010414 0.7192081675310561
0.47315176733850345 -0.33653423967421414 0.824667307269559
-0.2579133226967041 -0.09489806842198965 0.5011433894515254
-0.04375968167703561 -0.11558579352601966 0.5212278928688581
0.17928165789826558 -0.19101080342404272 0.631522387076225
0.0386747502599664 -0.025838992679028696 0.6098080676849613
0.13264104041392397 -0.20907374847439086 0.5893966036544089
0.2533943226288283 0.17829821944216112 0.8260707576285377
0.19281887993486543 0.0016262870159953573 0.720198763594219
0.5941139185677884 0.1354313204119883 1.0874558309624054
0.676612502635096 0.08497917153311435 1.1289405420225898
0.5787514427043134 0.01033615052050307 1.0309038211035875
0.1518292280203391 -0.07640318493043491 0.6618516165257003
0.26944577406217063 -0.16105291396215224 0.746548350992349
0.147151924849989 0.08518681557071535 0.72204711264489
0.25155303179441113 0.1534048430524314 0.8159716200886977
-0.2079450468548926 0.17438168808097254 0.5401771959995303
-0.034140749845212114 -0.18266287853315483 0.4875517053944719
-0.2523425988546442 -0.10120549508203051 0.502664374996998
-0.2112000381753349 -0.12776249038179965 0.500352051433983
-0.2774163302006865 -0.024388812896903766 0.482681158056407
-0.24628567988134445 -0.05447831611652419 0.49782095387481273
0.3944827809621887 0.08739106371219567 0.9279313517500176
0.0756009477141942 -0.11825166003976184 0.5937962995854751
-0.2151984479877359 0.0988255828672914 0.5216516836595477
-0.17822099667695912 0.06823055222155268 0.5328660936748686
-0.21844634695924192 -0.0607196321837592 0.5042995046267787
0.05319141046115624 -0.17037200272184888 0.5528063897777511
-0.14678204588211738 0.12855534329520038 0.5609823624165811
0.32951975611185985 -0.21659603055734636 0.766210357512557
-0.07079871284883898 -0.16324108851211544 0.4867849172846905
0.5975584184538972 -0.1477956798698936 0.9866539105781135
-0.21414201276246225 0.01683941507278364 0.5108387148346285
-0.20776148250549156 -0.004203296304697001 0.5110911230728439
0.36430972648033594 -0.22682248759994803 0.7873161977284381
0.05524299472947194 -0.07132480066557267 0.5988831494524266
-0.2706584415838096 0.04963109089336598 0.48473847942204373
0.3666128207556149 -0.2847816581299465 0.7655215733554267
0.18211416282764314 0.02693929651374423 0.723067923403913
-0.1633371665441189 0.15675405265389078 0.5593958061728246
-0.1979003762628069 -0.09429160537407831 0.5038706331632656
-0.26362548394754887 -0.042685789645993365 0.49109811438059103
0.4116303822531107 -0.08212377801018801 0.8772868379771962
0.19667424924702684 -0.005768478707096815 0.7199048005760749
0.18710569036838098 -0.19631039268083728 0.6349011194981914
0.1350829631258214 -0.2581510452407429 0.5675593677607081
0.19133629757247156 0.19325305387740027 0.7900079040927446
-0.093660152426713 0.10057317468252767 0.5812869696070875
-0.22629870150158135 0.10011147268664439 0.5157552178444467
0.4692426401467088 -0.35384086995965314 0.8151942896088713
-0.27617588108763347 -0.0987401513790766 0.4994650495886198
0.3496346056138787 -0.1412528505697177 0.8102465299768042
0.3644789320762877 -0.040629711603927705 0.8595103875995285
0.07883974197678092 -0.20975465352340822 0.5496880475152636
0.10166210523443314 0.011142498886341714 0.6610522942860674
-0.2626014803110735 -0.09176042363084931 0.4999511583327099
0.3626801074993275 -0.012009097686647657 0.868471234711105
0.36020230726048263 0.025213580312663464 0.8812218039173491
0.3665304052989008 -0.10764569770262948 0.8353314629210061
-0.26295521780160847 0.17613403168381214 0.5060370403360887
-0.23132548257323382 -0.0690131889211428 0.5021064933922904
0.5286091384799085 -0.006144418493217725 0.9889244680480556
-0.28597135665321355 0.11496946790460481 0.48053322930493897
0.22632039629555356 0.2051813138142724 0.817309951638763
-0.26476805719893504 -0.07101788732262483 0.49562429067673625
-0.2823341928946798 0.14588269180507613 0.48749519047060313
0.3863368246191149 -0.26735190330266767 0.7873651368951489
0.4395082817053692 0.09923576332452537 0.9642017431047905
0.08129017751930753 -0.12931007665875524 0.5922806318537879
-0.2831972209365602 -0.12373786995195077 0.5075256239065216
0.3722306457483086 -0.04264324311629799 0.8641209708804638
-0.18953388637758645 -0.08635951495877493 0.5054677527067756
0.3465618472167626 0.08575853970350285 0.8943094804174416
0.0053308921754597165 0.13397674415716748 0.6453516471675812
0.2808435752639128 -0.24264164288358034 0.7204555663434716
0.06768894348767152 -0.12142910813375256 0.5872444340095747
0.3423186776013861 -0.07425722055691628 0.8308563826885121
-0.24752201478238064 0.1524820947529866 0.5118113983989843
-0.2627350143902826 0.12840513716540222 0.4981348994769314
-0.23974054491187988 -0.08925363711979471 0.5020577653369586
-0.034873619816366906 -0.1564755761601788 0.5009887651929497
0.2521194203692305 -0.268116351286943 0.6887421795462324
0.24781054016419454 -0.2444948508563729 0.6959104847142369
0.6274541628525551 -0.07590539701807734 1.0349330780051207
-0.13836209326649998 0.05531967097976526 0.5495293039019549
0.13539275136766918 0.1129382681011198 0.7187090116856641
0.47243815209722945 0.07274860606564355 0.9777045072730441
0.07493423307683493 -0.12447987590489176 0.5903837087961639
-0.06204390964428326 -0.1850468803385919 0.4720681569525712
-0.05026678308486846 -0.18057799246912082 0.4822809485235104
0.33929050901182883 0.0944741737187571 0.8928084328752234
-0.1623321396133448 0.1626721990419285 0.5614972277031214
0.21168879083482992 0.14387356846078128 0.7859582395497823
0.05922443011183558 -0.11585394291098747 0.5844792234330265
-0.2145769562020012 0.10508952368342073 0.5230534254711551
-0.02757007874306084 -0.10559302834343394 0.5350453512556873
0.028550385803846674 -0.16582985951916923 0.5393528644798584
0.252275950589897 0.22212902995231676 0.839985604635786
0.3486655784774145 -0.3048076830015438 0.7444208868637703
-0.1703789991965943 0.1109168719438601 0.5449210977620802
-0.03838735746429333 -0.07699550525328734 0.5449539449533628
0.4864564778737072 -0.012185802267732809 0.9563385279921394
0.018896414166897506 -0.16271073919521298 0.5354843821788385
0.07265953549176576 -0.14925584836109357 0.5769669060976829
-0.2554453911696018 0.05813943458657267 0.4943641245865294
0.17025299278756778 0.1820934689396448 0.7720931909660292
-0.007454150946188502 -0.21769403174353674 0.47963538575988196
0.10504024771690626 -0.06139173996700857 0.6376376243373141
-0.14931233616808628 -0.09558818315424361 0.5071261325909064
0.014028784976412646 0.03403480378992309 0.6179483992312695
0.33940411740315257 0.07241264294086015 0.8843992187345474
0.10882192817682491 -0.11404686711223148 0.6170194006837872
-0.26539664595241885 -0.03593873705786105 0.48967468885824145
0.6061032458349678 -0.07383918322128592 1.020742948727876
-0.07748465334382013 0.0002663713210164172 0.5589848986800778
0.2805617116646669 -0.11131886126328445 0.7733786260005232
-0.03161017125707833 -0.020760816167813115 0.5725958419766838
0.5902788679840906 -0.06652657339018625 1.0114292519438473
0.01733823148879134 0.010619366790348923 0.6114997530678692
0.5888070038677973 0.05058668402633044 1.0530632345027888
-0.23573517971240726 0.07304248331670554 0.5065760474961746
0.12006097875236661 -0.24241751062887115 0.5637130676633297
-0.1978668245640557 -0.13848661862898545 0.4957413864306788
0.1632154880847572 0.0279320313886717 0.7109549207957141
-0.07504694547674987 -0.08532340840333706 0.5247759542620384
0.1369331251686603 -0.21242822981159587 0.5912665289545754
-0.13442149421271804 0.10376120990705161 0.5613797216784944
0.3243823985884935 -0.2034033636150652 0.7676461786489596
-0.01961338600827355 0.05106169828384216 0.6042097452097455
-0.28683360944343506 0.032886393869727394 0.4739394566121382
0.36883276898506323 -0.04758283158989894 0.8599099917327845
0.28197139859393383 -0.10076928834188992 0.7785319358121408
0.10724658126319755 -0.21853157683811347 0.5662592956731892
0.18572538009903167 -0.057985051493975044 0.6921577705192249
0.22295824340230408 0.028704541680583073 0.7508745625110463
-0.24929376038827714 -0.10783845331255612 0.5040371343200724
0.2381127622906513 -0.2785229189663198 0.6742069882280918
0.2796650002381948 -0.2469213976256531 0.7178068578310977
0.12360045003584748 -0.24217675785432732 0.5664478706777035
0.1856019408277862 0.0750617954825846 0.7433312792086239
0.2815143004024651 -0.048483753177569415 0.7984447667443951
0.16723881359139497 -0.08492150989119783 0.6683703254404498
-0.25662364445821023 0.002399406586323121 0.49147883334539477
0.2273093150547699 0.22445398291596164 0.8236172610949228
-0.16000892996520927 0.062317407916695454 0.5405050730803428
0.05801421640352448 -0.19062499250040468 0.5453043549842004
0.027183251124987904 -0.20958656683507215 0.5118692634054162
-0.10915109009749296 -0.09860214071093104 0.5134863711616021
-0.22461191311269896 0.10645201085909399 0.5177450707354085
0.5837967233769782 -0.09674838524659718 0.9954003425388055
0.05340493428261906 -0.19469800755585268 0.5397653509616677
0.35323955830862674 -0.30971573664880947 0.7457710713441148
-0.24392309774017903 0.08345335034761313 0.5034594441592419
0.3439168544851542 -0.308788959795814 0.7394251562131798
-0.21881417650773108 0.035541901176153655 0.5109297126292992
0.1381237256179713 -0.25186406138776773 0.5730719707715869
0.3916940629463244 0.13343326004794664 0.9428234876413276
0.1247160912041631 -0.059830741098669996 0.6508352001852621
0.19056899872474767 0.09905813322355639 0.7554904491236031
-0.25061549051774684 -0.08765702166587958 0.5008446702597086
0.3677851869115602 0.014261983642909926 0.8822158971290558
0.6312697401700621 0.12788995992992042 1.1115122665496002
-0.2544986365924498 -0.1150589222410234 0.5052825714897764
0.4366696136154305 -0.17892892837024793 0.8585354796256431
-0.03693186549275081 -0.20289655705492987 0.4706322250883281
0.28285622459789317 -0.07963119483103337 0.7884029296519582
0.04091641012603332 0.0815813940632862 0.6519465826847436
0.5724951395457561 0.016794017770984344 1.0289724064482184
-0.2710420902900481 0.041039960749003415 0.48435131722352787
0.24746493827613142 -0.2871348341660807 0.6778289920019858
0.15017397532583265 -0.2177375836500746 0.5981946585981357
0.13737879083915 0.06430004072554413 0.7081942521897165
0.15325285301251065 0.07307538685522579 0.7216226866319079
-0.23735719177159562 0.0933936785416316 0.5085635566464454
0.28247205210940224 -0.1007297286784838 0.7788133607769174
0.06630349496830859 -0.10918096315357367 0.5921898340472879
-0.2752017027735917 0.11254857433600082 0.48763722728156017
0.18458223846266036 0.05975397608362118 0.7370337284734297
-0.15875705615961372 0.11448518405921869 0.5517217435232171
0.05063447086632104 -0.20146180666733446 0.5337883039300304
0.49367119266089116 -0.26184920041489035 0.868504935674788
0.4606222116307344 -0.22052496649352551 0.8596296741404943
0.3494889393528795 -0.10804852593709763 0.8232702558980818
-0.24350493562710906 0.2001241775950973 0.5218056626482135
-0.2689069077266577 -0.05300047086166525 0.4906861639645566
0.3129936878795063 -0.14395072976341622 0.7834229799581784
-0.2925222254614562 -0.13461279316415184 0.5116921378035957
-0.2283824448167015 -0.08109728869609129 0.5026820860856919
-0.01578403380391875 -0.07940253458535039 0.555212201206519
-0.20753866755812497 0.07223743217127854 0.5213959711533053
-0.18523891281733046 0.03634440336504381 0.5257369313918365
0.14761763722690252 -0.013319635468519945 0.6846593715026832
0.04089778086955653 0.1236528825032423 0.6640406564176732
-0.22904920886233432 -0.08487224350583115 0.5024627091487557
0.49471767589826765 -0.3054972300364667 0.8520064070174351
-0.03616436637334056 -0.17009020024802873 0.49685066067885364
-0.21300500573762154 0.12873438065046647 0.5283576274159277
-0.17890574414940474 0.13816416331252585 0.5465601097204301
0.1531450261194981 -0.08629325242944352 0.6584084213440963
0.4980336636294231 -0.14562519414879818 0.9150217013614715
0.1738314206713046 0.19103785079630273 0.7777159683797227
0.5302858466610043 0.022832767067324167 1.0009954753064265
0.300234816499814 0.23239625203135494 0.8759992137417894
0.45829117844439393 -0.3199132651334889 0.8195609082090926
-0.05171545679603452 -0.06300582972150151 0.5459895594301362
0.42017596219878456 -0.36132966243539144 0.7751843537522569
0.6202365895575099 0.16697766448845022 1.1173910297101488
-0.07188082722779014 0.06473036812133962 0.5830113357348354
0.4854622331735617 -0.30700622283335416 0.8447315877169672
0.21260714278125814 0.08866444825849601 0.766351169459421
-0.14509134728370288 0.13960621543612112 0.565260742294861
0.5428122021566916 -0.046272996021332474 0.9845507716518036
-0.2838130762341608 -0.028549119702719807 0.4799827599218179
0.479088945713902 -0.04153420757682157 0.9401097572859115
-0.003995550160515368 -0.21163341165384886 0.4869905842267037
0.4290984662207662 -0.25455797523667134 0.823567597826682
-0.1790392870908379 -0.1048735083123415 0.5020922845763692
-0.06287746482624554 -0.01635548071036871 0.5591427810953967
0.520270665726535 -0.3046037841473385 0.871304322157362
0.40067324206787386 -0.1810732901390973 0.8314869616560155
0.176261723202025 -0.12323842069554937 0.6589038677338027
-0.10017711095991394 -0.028891057542101868 0.5409874144550489
-0.27350807132054755 0.04965308360918114 0.4829069492486551
-0.013386801315695808 0.1332438342847734 0.6342654320710255
0.12090994787590037 0.09193122531641208 0.7032677370584859
0.06984761364156157 -0.11381761959578472 0.5920464106568931
-0.15804547305340713 0.02292643012389346 0.5327116205635356
-0.18897115255877603 0.04424789144289456 0.52542741818069
-0.07819169099004436 -0.03148424862048938 0.5469625293208336
0.16009531446821373 0.07031138877828208 0.7248333154891863
0.07729010387794141 0.10781690717690526 0.6801896990983781
0.39012017479312733 0.05470757684142196 0.9128970576306342
0.07238877055914844 0.008842750345883874 0.6430774512701578
-0.24640441724153941 0.15867930077712894 0.5136721057464424
0.4440978160698648 -0.026176726443160787 0.9212306646043721
-0.21908128125991275 -0.11109496225084853 0.5026421123837108
-0.1283306123940957 0.09604404659790904 0.562825514942786
-0.15166744703777751 -0.10115608525463271 0.5053486719576663
0.056180113481118156 -0.15072090168563895 0.565513255429674
-0.0822803315259651 0.08683351538573697 0.5836434533954239
0.14637557879365284 -0.08955788493650597 0.6527390703251158
0.16174210640165154 -0.043351477876966325 0.681901204236649
0.43678124817539243 -0.15730821585316773 0.8664411831893369
0.050473431470613034 0.018742220339216374 0.6349113676157878
0.5661855075769678 0.008289773963707387 1.021392699589132
0.6341563319959299 -0.09487655220690004 1.0327204283950762
-0.06526738085778339 -0.17449719866212968 0.4797612942448052
-0.2692037494543413 0.06867146826685981 0.48685755658108726
-0.1718471984884473 -0.05772266686319253 0.5132704878808368
-0.1615283419675264 -0.09091195338990173 0.506979633347645
0.6760936095758048 0.17725941139565005 1.1619001351332596
0.00039975546582872185 -0.2043389990970127 0.4959604829731682
-0.2517491164629012 -0.03310443160623306 0.4947214881349325
-0.13655694793590842 0.009959853009092313 0.5384615798602777
-0.012577438858953164 0.11492353772593498 0.6297778576903706
0.4846281006475764 0.01210776082927278 0.9642935902444896
-0.08240036920360465 0.020282732069852406 0.563541954507624
0.4644582528004881 -0.20276154853927372 0.8692784059039763
0.1767457714685411 -0.054085626147461374 0.6872423504168405
0.2795042328970854 -0.2368751617735782 0.7218031130025402
-0.14247856771614564 -0.08346203981667237 0.5120057069125452
0.49336490566903546 -0.27368850445146703 0.8632473929427675
0.0034948154198948577 -0.17915082055551332 0.5153118936103215
0.135092743066113 -0.2383242085980241 0.57721937958341
-0.18076878185418968 -0.045246169753301056 0.5133611214874523
0.22599176627819859 0.1948036876300096 0.8136102466628211
0.4886897428251404 -0.31675640027667673 0.8434827601217189
0.0941408255649017 -0.09731583526868333 0.6151067915175725
-0.11748385950172929 0.05114909110372973 0.5580338897402297
-0.26442928249659325 -0.06373084332554717 0.4938891012479364
-0.19556075980223242 -0.10313708398685287 0.5025049048716057
0.010097333335718236 -0.1728032163511108 0.5236072422072974
-0.06633173188921204 -0.08612980018736657 0.5272947943339947
0.12278922031723802 -0.25157344108759877 0.5611531777379485
0.5325896168023392 0.1467165089686576 1.0474369438715627
0.22088733184637252 0.1796806324681022 0.8040916066945953
-0.07726793542108759 -0.12468438725443333 0.5011369217796381
0.1421673317985609 0.010038727319908455 0.6903721444908447
-0.006360587797630717 0.1043356743040938 0.6297053913598165
0.09028651618321933 -0.2038940453200566 0.5611448249428113
0.22236051289113204 0.17451096893316603 0.8038738859094421
0.12359816551733967 -0.20406516551961898 0.5851083094749258
0.48026889381841037 0.07621607481341776 0.9847785446153681
-0.19734356519327725 0.130647099463321 0.5374901680769191
-0.09755203231942144 0.09480497825325684 0.5778749028652769
0.12767346821702663 -0.15787343663812325 0.6098255245594763
-0.14746969509066607 0.1050681462051646 0.5549819379170039
0.09360503187044465 -0.21780871559496306 0.5563124528482697
0.344480427549687 -0.237252917460389 0.7689807351542488
-0.2719716189105343 -0.10577944452617914 0.5024583261749119
0.5896793675402804 0.07706559863040435 1.0635196580051667
-0.21696023392066274 0.0991434344856215 0.520904406388661
-0.2858236467524312 0.05901707190239962 0.47540121523982465
0.27940805250031653 -0.04875829988308827 0.7968949789868723
-0.21053544109674074 0.042484463917348156 0.5154628646046785
0.46762187173123837 0.02604703667295507 0.957314190678379
-0.2039331028925542 0.015402647595569714 0.514805898431917
-0.22503849469266554 0.05006472390807174 0.5094862396629777
-0.2834129964984638 -0.029249238921006927 0.4801915454535626
0.05944454814816509 -0.12529349903488363 0.5800797500800342
0.13835136309767473 -0.1343177954863151 0.6278945590854764
0.1408271805127793 -0.0008515122797139624 0.6852176591871783
0.13101293530644734 -0.11575774228471959 0.6313479232939534
-0.2959059287383134 -0.06233702478538815 0.4800854172474053
0.6200434775193912 0.09482044131116256 1.091787289748071
-0.15375532824589724 -0.13688847524281816 0.4906181689436505
-0.22560571932757884 -0.04956069682883729 0.5031122077744512
0.3460777430976392 -0.06616964120384954 0.8366351480784742
0.11114310882265453 -0.17008807885637214 0.592843677355101
-0.2246104497967997 -0.011648309772337112 0.5045958855356997
0.18646276212698285 -0.0219069909321558 0.7068979091701777
-0.12260148101152071 -0.08222515390471567 0.5121817873135218
-0.0231996682097278 -0.17577178095322485 0.4998223857248216
-0.28254410784720096 0.12645103996580326 0.484565061560708
-0.1959056009312246 -0.07932007532413483 0.5061174009930707
-0.1462213335604326 0.02042792761383075 0.5370199349752014
0.0038174021066778993 0.04836010621686348 0.6176110405125432
-0.14981859787002116 0.0948046999928255 0.5517848887438502
0.1481506726895654 -0.007915112061576478 0.6871584214878974
0.45331117171101143 0.12798181581560136 0.9839858749969007
-0.2654738808744382 0.0604041662814282 0.4883452332190963
-0.028908336852182616 0.05504109794475539 0.6004352409633125
-0.2509030805532408 0.018770410859782885 0.49432484158248147
0.36270643871401353 -0.21904477170986467 0.7892303264137501
0.09132943248877243 -0.10070846783582894 0.6116799953916565
0.425084354021732 -0.2855975787519503 0.8084982036287808
0.21424817331072227 0.23060301793896298 0.8172969954279901
0.4357214065572719 0.014973102644820723 0.9303278421017793
0.23823655050586842 0.05048567133679046 0.7694266054028172
0.10593500560716503 -0.15941683434425918 0.5942833462948229
0.14448969388919922 -0.25826968344298057 0.5751325607895367
0.06856957720862757 -0.1956051403520437 0.5498865528371858
-0.23886543854504746 0.06647718989133324 0.5044133537198775
0.014280319823441967 0.07439721199385835 0.6330489921746144
0.4654708437606525 -0.29952473180736977 0.8326381789151268
-0.2661914133041458 0.09045557369407672 0.49085620623974846
0.22168502423660197 0.09946255959876109 0.7764731925993049
0.6244290668495535 -0.01824265020961697 1.0537284707696057
0.15515197796029126 -0.21531528432996733 0.6031366368608556
0.16815238732196042 0.003031092530827871 0.7043952381471278
0.061152816138743044 -0.14793023716320805 0.570120843083961
0.510510972955162 -0.1434353671948934 0.9248218849558928
0.023645301078606074 -0.11762688783167877 0.5559161553018093
-0.26138562382511726 -0.13738379099466386 0.5099804961519195
-0.10988746112435167 -0.14741681096738057 0.48710505746997834
0.5509924511615671 0.0017251558355075595 1.0082939207740746
0.023593337405877164 0.02636264089905719 0.6214607624638762
0.4589066719887292 -0.34975359083474794 0.8089660826961639
-0.0656813159856829 -0.1662774607107061 0.48660927534170795
-0.17272164745026197 0.09743635575982804 0.5402290132706119
0.3066424336494822 -0.26663390150267696 0.7292534004337801
0.27483341061648403 -0.23236567682892664 0.7204523587151489
-0.2585518463002796 -0.030426122958743407 0.4921573353449831
-0.06846581073906946 -0.030391323823630842 0.5515012215879466
0.31859303481317985 0.026615997428561803 0.8323107401558459
0.20654072977070909 -0.04528693257681033 0.7111359773620005
0.30343961587488005 -0.27714330128414283 0.7225482269657694
0.15854232000420143 -0.21399628025340756 0.6064393365713292
0.09565358743651152 -0.06572371210224208 0.6297955653045564
0.304537726103172 -0.04283875892303664 0.816578337650021
0.1495981554540771 -0.08649402175741797 0.6562153452377908
-0.26737002276283806 0.01183638086846591 0.48606673410031287
0.07536912574605407 -0.08662078271085995 0.6083402313045492
0.047310848099952875 -0.14269721922200784 0.5638145046840698
0.3510322729224736 -0.11823192358624497 0.8202667012418223
0.008006821595547614 -0.22035798537996715 0.48958771081321245
0.14155319651188922 -0.1847212558947382 0.6074282941489367
-0.2156153379728374 0.07199995952992366 0.517127163967811
-0.012665577482303108 -0.19403490286479794 0.4928749709239685
-0.19172316307707665 -0.07904622805226624 0.5063640151334723
-0.2756320958715108 0.08703435363348674 0.48445469419439824
-0.14826128791097148 0.1549711276186203 0.5672676390717177
0.4291110625564182 -0.007428572302241911 0.917630252508964
0.14098057665036856 -0.10666697519446122 0.6415783581619844
0.07192454566204222 -0.12098724847605678 0.590308587484965
0.37566463961175445 0.06601742118496677 0.9072987855058923
0.3735459899532843 -0.12646832579030953 0.8337442525127224
0.09710589192851472 -0.035443639109113294 0.6435875204710635
-0.1399468813651149 0.09707075602270934 0.5570013168980485
-0.20375906160105034 -0.029754807090267982 0.5097712861851007
-0.25314554595801225 0.1186974187219798 0.5027096978507231
0.5028353887276663 0.024358178781743 0.9815708482872672
0.07868716724951501 -0.13545650642961524 0.5876291785734393
0.15811990638909865 0.05852303543339012 0.7193580244512319
-0.24981970055821048 0.13059855003166032 0.5064464116159852
-0.06920992531297972 -0.08288062611401709 0.5276535128976503
-0.1998466431083908 -0.029032269670851745 0.5109334975424638
0.14916917525711912 -0.23180114240417518 0.5910885944033414
0.1165181632309556 0.04774277655390884 0.6847699434637304
0.18074299151677892 0.15136966470597513 0.7680210410441735
0.6484157022879328 0.03796672258626741 1.0917305702091895
0.49172221712988456 -0.051718790639657626 0.9458109032349186
-0.034310568594725054 -0.1818403915185492 0.4888181510870236
0.04222323094793256 -0.2176209806020038 0.5179008492918974
0.12464701941094172 -0.21347081638476495 0.581504532544747
0.3875795730860776 -0.05669453242984744 0.8692574068597247
-0.2724908555589358 -0.12418766082779607 0.5078689159212172
0.08116464774085534 -0.022341271356413155 0.6390015853684909
-0.254269913505458 0.00934682939809293 0.4925562398525617
0.1773075071041636 -0.01779234143031155 0.7023989786836312
-0.2678662216919021 0.1799160414980815 0.503031096737227
-0.2618551504527987 -0.05134263086543978 0.49320735013227823
0.5937947979985136 -0.05476383205823285 1.018316961233751
0.12682963271828812 -0.24268044204665667 0.5686923813055842
0.03482993796939154 0.10673211600764504 0.6541798052043545
0.23483257340094504 0.13153921990373948 0.7968253266620635
-0.19384542598209695 -0.0641161387117965 0.5082453651592476
0.06417483872130153 -0.1658490461595567 0.5626438335794564
-0.22695785709444566 0.0244805009920784 0.5060315477851571
-0.051430472850943126 -0.1836552056315944 0.479589121299812
0.36517556465793527 -0.32399314288431447 0.7490420553733725
0.14254991862457578 -0.02866776449759435 0.6753526809770733
0.4736921791210176 0.01966912161284544 0.9590787669321549
0.061235563078926955 -0.149636702495598 0.5695803544230535
0.4371922915479895 -0.23390180516987147 0.8373960291860831
0.14500174942958605 0.05097207742086711 0.7078008317061705
0.05198878856674428 -0.07770913020166319 0.5934580477392044
0.20347364979091062 0.11707070972008435 0.7708205732286103
0.011715788319859468 -0.21215950818564255 0.4986134521471033
-0.08838429432229049 0.10336324051481306 0.5849761782355997
-0.0631058721863272 -0.17081211443173863 0.4841946622586309
0.06358101176577229 -0.22309717689878505 0.5312282247788873
-0.2544504369154102 -0.02675905846640894 0.4935710582108818
0.39966412252825 0.10486291657389717 0.9379489492372153
0.3672368340000938 -0.10307398953969209 0.8372207221722722
-0.296957531084895 -0.09832515354870033 0.492922412438007
